12 0 638
12 2 643
12 4 287
11 6 260
10 8 259
8 9 637
6 11 636
4 12 204
2 12 189
0 12 186
-2 12 197
-4 12 201
-6 11 962
-8 10 289
-9 8 288
-11 6 285
-12 4 291
-12 2 741
-12 0 927
-65 12 836
-48 18 636
-24 14 303
-39 34 633
-32 40 630
-15 28 354
-7 21 206
-3 20 181
0 21 199
4 22 218
7 20 196
17 28 362
23 26 397
22 17 288
21 12 246
28 9 313
26 4 277
43 15 283
35 19 249
51 40 405
35 40 332
31 51 373
17 45 300
6 31 194
0 29 179
-4 30 186
-10 31 202
-83 150 1078
-62 79 630
-76 66 627
-86 52 630
-96 36 641
-79 15 499
-122 0 767
-202 39 846
-559 214 2423
-318 191 1512
-613 532 3278
-141 181 944
-20 37 193
-13 39 188
-7 47 214
0 38 174
7 38 178
14 38 186
77 128 621
31 36 214
37 29 210
48 26 243
140 48 618
162 25 681
186 64 607
171 94 603
85 66 350
37 42 199
33 55 224
17 46 179
9 48 178
0 51 183
-7 49 180
-16 47 180
-25 46 188
-191 245 940
-822 715 3201
-174 104 626
-78 29 278
-419 81 1277
-85 0 283
-237 46 586
-575 220 1428
-212 127 601
-1023 889 3089
-640 820 2381
-30 54 183
-19 58 181
-9 59 179
0 58 175
11 60 182
21 55 178
34 57 193
55 63 232
57 44 206
238 132 656
98 33 276
238 37 585
270 93 566
260 144 586
66 52 202
58 67 210
40 67 191
27 71 188
14 74 185
0 285 565
-12 77 191
-92 268 561
-601 1085 2289
-998 1278 2976
-1224 1064 2975
-251 151 578
-265 101 562
-261 50 530
-279 0 553
-585 113 938
-306 117 539
-288 173 552
-1408 1224 2820
-1152 1474 2827
-908 1639 2832
-225 654 1079
-13 84 180
0 92 191
21 111 222
29 77 176
50 83 198
59 68 189
70 54 185
305 169 572
377 130 645
325 51 542
340 117 516
313 173 515
83 65 192
65 74 183
58 96 200
855 2229 3112
18 94 179
0 97 181
-15 99 184
-34 99 191
-1001 1806 2699
-1268 1623 2693
-1556 1352 2695
-1764 1060 2691
-368 141 561
-385 74 558
-373 0 534
-442 85 510
-425 163 515
-2034 1222 2434
-1790 1556 2431
-1469 1880 2446
-842 1519 1797
-38 112 179
-64 404 469
0 104 164
60 311 377
40 105 173
58 97 174
78 90 179
95 74 181
282 156 382
392 135 475
408 64 473
413 142 441
1746 968 1797
111 86 184
85 98 174
65 108 172
47 122 176
22 115 164
0 126 172
-20 129 176
-42 123 175
-1433 2586 2632
-1819 2328 2630
-1941 1687 2297
-2178 1309 2271
-433 166 465
-1068 207 1007
-688 0 660
-1066 207 852
-852 327 726
-796 478 738
-1249 1085 1266
-1947 2492 2361
-1535 2770 2364
-49 142 172
-23 151 174
0 611 507
157 810 663
51 132 167
69 115 161
92 106 166
116 90 170
147 81 185
2020 695 1615
2108 333 1614
2139 736 1424
431 239 361
135 106 168
103 118 159
84 141 164
54 142 156
32 165 166
0 167 165
-78 493 365
-784 2277 1512
-1628 2938 2083
-2060 2637 2076
-2527 2197 2077
-2881 1731 2085
-517 198 397
-1742 338 1131
-1740 0 1110
-1583 307 853
-1504 577 852
-2246 1350 1345
-2651 2304 1780
-2159 2763 1777
-1707 3079 1783
-204 592 372
-98 622 374
0 167 148
29 149 140
90 234 189
81 135 144
110 127 148
503 393 378
2065 1144 1218
1702 586 944
2340 370 1222
2319 798 1009
2153 1193 1013
1942 1517 1014
445 512 328
861 1433 710
1302 3392 1462
692 3564 1462
0 3635 1463
-109 688 335
-272 791 389
-1776 3203 1474
-2251 2882 1472
-2063 1793 1117
-658 395 362
-2076 796 921
-2181 423 920
-2219 0 920
-2245 436 725
-2130 817 723
-1972 1185 729
-2850 2478 1152
-2318 2967 1149
-1835 3311 1154
-196 571 242
-98 621 249
0 640 252
715 3682 1144
1340 3493 1142
1386 2308 841
377 434 234
452 353 233
2213 1226 794
2383 820 792
2486 393 791
2423 834 568
2261 1253 573
1943 1518 549
371 426 180
300 500 183
209 546 184
731 3761 815
0 596 186
-92 586 185
-223 649 204
-357 644 213
-2381 3048 822
-2909 2529 819
-2012 1208 526
-2173 834 522
-2286 444 523
-1880 0 435
-2080 404 331
-1878 721 318
-2026 1217 361
-96 84 87
-83 106 87
-65 119 88
-44 129 88
-41 258 103
0 150 89
28 144 89
47 124 87
67 111 87
86 98 87
107 83 88
130 72 89
133 45 88
143 22 89
